X,Y,Z,R,ClusterIndex,X_cluster,Y_cluster,Z_cluster
5.58563,-2.34188,3.35957,1.5,9,5.58563,-2.34188,3.35957
-9.93701,-3.42646,-11.87476,1.5,3,-9.93701,-3.42646,-11.87476
-11.02567,1.90983,-14.46194,1.5,2,-11.02567,1.90983,-14.46194
5.51523,-10.55578,-2.9679,1.5,11,5.51523,-10.55578,-2.9679
9.00636,7.12328,-10.55074,1.5,12,9.00636,7.12328,-10.55074
-10.33396,-3.24633,9.64314,1.5,14,19.666040000000002,-3.24633,9.64314
-11.79773,10.65229,5.67635,1.5,16,18.20227,-19.34771,5.67635
-2.49481,7.22692,8.79155,1.5,8,-2.49481,7.22692,8.79155
-9.33613,-14.93664,1.89394,1.5,16,20.66387,-14.93664,1.89394
-8.12229,-13.44652,4.06196,1.5,16,21.87771,-13.44652,4.06196
-8.05321,3.23873,10.40012,1.5,8,-8.05321,3.23873,10.40012
-1.91614,1.08456,3.82518,1.5,7,-1.91614,1.08456,3.82518
-6.8714,-13.54043,10.14187,1.5,5,-6.8714,-13.54043,10.14187
1.62362,-11.3645,2.47079,1.5,9,1.62362,-11.3645,2.47079
-7.99582,-7.65761,7.8396,1.5,7,-7.99582,-7.65761,7.8396
4.09879,9.11815,4.29439,1.5,10,4.09879,9.11815,4.29439
13.6156,3.76181,-2.23121,1.5,0,-16.3844,3.76181,-2.23121
-5.32801,-0.28293,-11.54254,1.5,6,-5.32801,-0.28293,-11.54254
0.38261,-4.09748,0.66074,1.5,10,0.38261,-4.09748,0.66074
-2.28934,4.97866,-10.02054,1.5,6,-2.28934,4.97866,-10.02054
-6.71285,1.91044,12.4168,1.5,8,-6.71285,1.91044,12.4168
-7.35663,-9.18886,12.37402,1.5,3,-7.35663,-9.18886,-17.62598
-13.49428,3.21614,6.14016,1.5,-1,-13.49428,3.21614,6.14016
-6.20623,13.86602,-1.685,1.5,3,-6.20623,-16.13398,-1.685
6.93317,2.07215,-6.26854,1.5,12,6.93317,2.07215,-6.26854
2.65082,2.51736,10.89697,1.5,10,2.65082,2.51736,10.89697
8.87522,-14.32914,-2.1875,1.5,16,8.87522,-14.32914,-2.1875
4.86797,11.08784,-13.09279,1.5,10,4.86797,11.08784,16.90721
-8.92348,-3.87337,-9.22927,1.5,3,-8.92348,-3.87337,-9.22927
-10.21986,12.99076,-10.89227,1.5,1,-10.21986,12.99076,-10.89227
5.37024,0.69535,13.4866,1.5,10,5.37024,0.69535,13.4866
-4.26956,1.33651,5.37524,1.5,-1,-4.26956,1.33651,5.37524
-11.13681,-8.66869,-9.07716,1.5,3,-11.13681,-8.66869,-9.07716
5.5006,-11.51561,10.92325,1.5,16,5.5006,-11.51561,10.92325
5.88711,-7.40794,1.4349,1.5,9,5.88711,-7.40794,1.4349
0.16887,-12.26929,4.7138,1.5,9,0.16887,-12.26929,4.7138
7.11216,-5.23104,9.42548,1.5,14,7.11216,-5.23104,9.42548
7.40251,9.40469,9.24993,1.5,-1,7.40251,9.40469,9.24993
-5.38747,-7.05465,12.9176,1.5,7,-5.38747,-7.05465,12.9176
-13.56869,-13.86767,3.73998,1.5,16,16.43131,-13.86767,3.73998
10.90039,10.13512,7.63925,1.5,-1,10.90039,10.13512,7.63925
3.88025,13.97862,-12.12234,1.5,13,3.88025,-16.02138,-12.12234
-8.86673,-4.47352,-6.60965,1.5,3,-8.86673,-4.47352,-6.60965
4.28642,10.18265,0.04264,1.5,12,4.28642,10.18265,0.04264
6.52007,-1.04009,5.69487,1.5,14,6.52007,-1.04009,5.69487
12.98229,-0.90684,-6.26319,1.5,12,12.98229,-0.90684,-6.26319
10.03768,3.40917,11.42831,1.5,13,10.03768,3.40917,-18.57169
-6.15369,5.79573,-6.68879,1.5,2,-6.15369,5.79573,-6.68879
14.05054,13.26869,6.11596,1.5,-1,14.05054,13.26869,6.11596
-3.41062,-3.4698,0.6572,1.5,7,-3.41062,-3.4698,0.6572
-6.29677,9.1495,5.02852,1.5,4,-6.29677,9.1495,5.02852
14.81516,-9.54534,-0.8465,1.5,15,14.81516,-9.54534,-0.8465
4.44788,-7.54212,5.1925,1.5,9,4.44788,-7.54212,5.1925
-8.92416,-7.16031,-5.77628,1.5,3,-8.92416,-7.16031,-5.77628
9.64324,-2.19312,-14.69527,1.5,13,9.64324,-2.19312,-14.69527
9.23618,-8.00091,-5.3166,1.5,13,9.23618,-8.00091,-5.3166
4.32663,6.15123,7.46275,1.5,10,4.32663,6.15123,7.46275
1.03487,10.74438,11.35996,1.5,10,1.03487,10.74438,11.35996
2.34285,-9.9875,10.44666,1.5,9,2.34285,-9.9875,10.44666
-12.37281,12.05294,3.22502,1.5,16,17.62719,-17.94706,3.22502
10.2495,-12.60705,10.05072,1.5,16,10.2495,-12.60705,10.05072
-11.73255,-3.31563,-8.82573,1.5,3,-11.73255,-3.31563,-8.82573
10.42932,-5.72732,8.59999,1.5,13,10.42932,-5.72732,-21.40001
-9.00687,-7.21916,-0.00999,1.5,3,-9.00687,-7.21916,-0.00999
-11.27797,-6.20897,1.18652,1.5,15,18.72203,-6.20897,1.18652
-1.67904,-8.54865,8.73424,1.5,5,-1.67904,-8.54865,8.73424
12.69429,1.50699,-7.48771,1.5,12,12.69429,1.50699,-7.48771
-2.25276,-7.04941,3.61662,1.5,7,-2.25276,-7.04941,3.61662
12.04582,4.93179,5.11387,1.5,14,12.04582,4.93179,5.11387
-2.78866,-9.08818,-2.47253,1.5,-1,-2.78866,-9.08818,-2.47253
10.50309,-11.41615,7.3798,1.5,16,10.50309,-11.41615,7.3798
13.12123,-5.53173,-9.78419,1.5,13,13.12123,-5.53173,-9.78419
-8.82717,-9.81762,-6.98034,1.5,3,-8.82717,-9.81762,-6.98034
-4.07311,10.13139,3.95247,1.5,4,-4.07311,10.13139,3.95247
3.13429,9.07398,12.09254,1.5,10,3.13429,9.07398,12.09254
-14.71821,-11.82406,11.50311,1.5,16,15.28179,-11.82406,11.50311
-1.37025,-4.84339,13.6874,1.5,7,-1.37025,-4.84339,13.6874
5.15113,-12.70065,-1.21786,1.5,11,5.15113,-12.70065,-1.21786
12.35474,14.93283,-12.31562,1.5,16,12.35474,-15.06717,17.68438
-13.16402,14.24177,-14.36273,1.5,1,-13.16402,14.24177,-14.36273
-6.74531,-7.35298,-10.12096,1.5,3,-6.74531,-7.35298,-10.12096
0.08515,8.5484,3.20709,1.5,8,0.08515,8.5484,3.20709
-8.43246,-7.45092,-2.69721,1.5,3,-8.43246,-7.45092,-2.69721
-3.23738,11.20839,9.14617,1.5,8,-3.23738,11.20839,9.14617
-10.59209,8.48003,9.8078,1.5,-1,-10.59209,8.48003,9.8078
-7.8528,12.32825,-11.73512,1.5,1,-7.8528,12.32825,-11.73512
7.50313,13.95474,10.04191,1.5,16,7.50313,-16.04526,10.04191
-10.18379,11.04244,1.86752,1.5,16,19.816209999999998,-18.95756,1.86752
6.07427,4.88597,2.9782,1.5,10,6.07427,4.88597,2.9782
14.00289,-10.84994,13.91924,1.5,16,14.00289,-10.84994,13.91924
11.38937,8.58423,-6.04973,1.5,12,11.38937,8.58423,-6.04973
-11.29596,9.70686,-11.684,1.5,1,-11.29596,9.70686,-11.684
8.09245,-8.83663,-7.91722,1.5,13,8.09245,-8.83663,-7.91722
-0.22339,0.58517,-12.30087,1.5,6,-0.22339,0.58517,-12.30087
-1.64125,4.27949,1.9462,1.5,8,-1.64125,4.27949,1.9462
-6.89764,1.70817,6.1677,1.5,-1,-6.89764,1.70817,6.1677
7.37989,-0.71701,-4.4141,1.5,12,7.37989,-0.71701,-4.4141
13.98192,0.94585,14.6251,1.5,13,13.98192,0.94585,-15.3749
-1.71831,-4.43843,10.86481,1.5,7,-1.71831,-4.43843,10.86481
3.54811,14.98284,5.27769,1.5,16,3.54811,-15.01716,5.27769
8.83356,-10.73786,-6.09395,1.5,13,8.83356,-10.73786,-6.09395
0.99145,-11.07542,-1.59358,1.5,11,0.99145,-11.07542,-1.59358
1.94114,12.33693,-10.94938,1.5,10,1.94114,12.33693,19.050620000000002
-10.3651,-5.30755,-2.40304,1.5,3,-10.3651,-5.30755,-2.40304
5.6652,12.84577,14.75737,1.5,16,5.6652,-17.15423,14.75737
-10.94192,-7.76774,12.3515,1.5,3,-10.94192,-7.76774,-17.6485
3.91166,-8.33191,-13.59261,1.5,13,3.91166,-8.33191,-13.59261
9.81697,3.08628,-2.03731,1.5,14,9.81697,3.08628,-2.03731
6.89021,3.51987,-1.59255,1.5,12,6.89021,3.51987,-1.59255
3.19751,-8.05699,8.61746,1.5,9,3.19751,-8.05699,8.61746
-11.63268,-4.59478,-6.25172,1.5,3,-11.63268,-4.59478,-6.25172
-5.46796,-6.18059,-7.95271,1.5,3,-5.46796,-6.18059,-7.95271
11.38552,5.55977,2.55664,1.5,14,11.38552,5.55977,2.55664
-9.55796,-10.543,-11.10066,1.5,3,-9.55796,-10.543,-11.10066
-7.34738,13.19822,-3.92773,1.5,3,-7.34738,-16.80178,-3.92773
-12.53089,11.88214,-2.49597,1.5,16,17.46911,-18.11786,-2.49597
3.76014,-8.7423,-8.75805,1.5,13,3.76014,-8.7423,-8.75805
-5.87735,-5.5007,5.51867,1.5,7,-5.87735,-5.5007,5.51867
13.99712,-11.82023,-2.43208,1.5,15,13.99712,-11.82023,-2.43208
14.79871,7.30131,4.75152,1.5,14,14.79871,7.30131,4.75152
8.83533,-14.82331,14.32813,1.5,16,8.83533,-14.82331,14.32813
11.53824,6.20962,14.62411,1.5,-1,11.53824,6.20962,14.62411
-10.49114,13.72582,-13.5548,1.5,1,-10.49114,13.72582,-13.5548
-3.11202,-1.59583,13.60843,1.5,6,-3.11202,-1.59583,-16.39157
-2.56691,-6.60124,-1.48251,1.5,-1,-2.56691,-6.60124,-1.48251
14.43082,-2.03849,4.17005,1.5,14,14.43082,-2.03849,4.17005
9.6107,-14.06539,7.7571,1.5,16,9.6107,-14.06539,7.7571
2.31358,-13.38741,-14.20816,1.5,13,2.31358,-13.38741,-14.20816
8.78178,3.93355,0.52807,1.5,14,8.78178,3.93355,0.52807
6.22071,-14.28607,-3.17868,1.5,11,6.22071,-14.28607,-3.17868
9.11083,14.0815,2.55446,1.5,16,9.11083,-15.9185,2.55446
11.66398,-0.24962,14.32887,1.5,13,11.66398,-0.24962,-15.67113
-13.03676,-0.24263,-1.37206,1.5,0,-13.03676,-0.24263,-1.37206
-11.99191,14.25977,8.76005,1.5,16,18.00809,-15.74023,8.76005
2.31033,1.31543,8.59278,1.5,10,2.31033,1.31543,8.59278
-4.80061,12.56367,4.77344,1.5,4,-4.80061,12.56367,4.77344
4.58002,10.25564,14.2949,1.5,10,4.58002,10.25564,14.2949
7.90998,-4.79366,-9.96168,1.5,13,7.90998,-4.79366,-9.96168
9.29472,-2.74278,0.19493,1.5,14,9.29472,-2.74278,0.19493
3.90741,-8.87961,2.7349,1.5,9,3.90741,-8.87961,2.7349
13.93438,-13.97145,-4.18635,1.5,15,13.93438,-13.97145,-4.18635
5.67272,6.9904,5.10827,1.5,10,5.67272,6.9904,5.10827
9.53256,-5.38177,-4.30303,1.5,13,9.53256,-5.38177,-4.30303
6.11207,6.16275,-3.5215,1.5,12,6.11207,6.16275,-3.5215
-1.39078,6.58094,6.18684,1.5,8,-1.39078,6.58094,6.18684
-11.20802,8.84047,-2.99028,1.5,16,18.791980000000002,-21.15953,-2.99028
-12.51152,11.97045,0.32518,1.5,16,17.48848,-18.02955,0.32518
12.1947,-8.80865,6.04329,1.5,-1,12.1947,-8.80865,6.04329
11.19179,-14.09676,-3.91318,1.5,15,11.19179,-14.09676,-3.91318
14.92883,9.5226,-11.53279,1.5,1,-15.07117,9.5226,-11.53279
12.23584,3.36099,7.45499,1.5,14,12.23584,3.36099,7.45499
-4.87915,-11.84057,6.06335,1.5,5,-4.87915,-11.84057,6.06335
4.87046,14.33389,7.56769,1.5,16,4.87046,-15.66611,7.56769
2.82181,-3.88064,-4.10571,1.5,-1,2.82181,-3.88064,-4.10571
8.36497,11.90616,-14.68131,1.5,16,8.36497,-18.09384,15.31869
-9.34514,-8.1582,5.41442,1.5,3,-9.34514,-8.1582,-24.58558
-2.28442,-11.93593,-9.57885,1.5,-1,-2.28442,-11.93593,-9.57885
12.56334,-12.84123,-8.34043,1.5,13,12.56334,-12.84123,-8.34043
-8.08932,-5.01125,-4.00123,1.5,3,-8.08932,-5.01125,-4.00123
0.05475,-12.15116,9.90178,1.5,9,0.05475,-12.15116,9.90178
10.32794,1.47128,7.91356,1.5,14,10.32794,1.47128,7.91356
1.1528,-1.48156,0.61856,1.5,10,1.1528,-1.48156,0.61856
-3.64582,-0.43925,10.33755,1.5,-1,-3.64582,-0.43925,10.33755
2.64161,-12.66626,10.31289,1.5,9,2.64161,-12.66626,10.31289
6.90674,2.39367,4.10056,1.5,14,6.90674,2.39367,4.10056
-2.79179,5.00776,10.49495,1.5,8,-2.79179,5.00776,10.49495
-10.3095,10.28896,-0.80154,1.5,16,19.6905,-19.71104,-0.80154
11.75997,-10.86386,12.19851,1.5,16,11.75997,-10.86386,12.19851
0.40924,4.65495,-9.82171,1.5,6,0.40924,4.65495,-9.82171
14.40004,6.69951,11.98485,1.5,-1,14.40004,6.69951,11.98485
7.8222,13.32003,-3.57782,1.5,11,7.8222,-16.67997,-3.57782
3.26564,5.54759,-7.9148,1.5,11,3.26564,-24.45241,-7.9148
-1.41594,-10.09162,-4.72524,1.5,-1,-1.41594,-10.09162,-4.72524
-4.31726,0.69756,2.54703,1.5,7,-4.31726,0.69756,2.54703
-1.20281,2.42734,-10.48129,1.5,6,-1.20281,2.42734,-10.48129
-8.44115,-0.40684,5.24723,1.5,-1,-8.44115,-0.40684,5.24723
5.2201,3.99528,-10.25476,1.5,6,5.2201,3.99528,-10.25476
1.64685,4.67069,-0.9526,1.5,6,1.64685,4.67069,-0.9526
-14.09984,4.95972,-3.49663,1.5,0,-14.09984,4.95972,-3.49663
-5.82344,-3.39992,-14.00044,1.5,6,-5.82344,-3.39992,-14.00044
6.6878,-5.79417,14.88292,1.5,13,6.6878,-5.79417,-15.11708
-0.22714,6.64984,0.96667,1.5,8,-0.22714,6.64984,0.96667
-0.22657,13.34074,-12.30035,1.5,10,-0.22657,13.34074,17.69965
12.94277,-0.33752,5.89065,1.5,14,12.94277,-0.33752,5.89065
-7.16882,-8.68026,-14.91938,1.5,3,-7.16882,-8.68026,-14.91938
-14.92429,-12.72321,8.95682,1.5,16,15.07571,-12.72321,8.95682
-5.20083,11.64638,-2.96173,1.5,3,-5.20083,-18.35362,-2.96173
8.63856,-1.05827,-12.24527,1.5,13,8.63856,-1.05827,-12.24527
-0.28568,5.88061,3.68907,1.5,8,-0.28568,5.88061,3.68907
-6.34564,14.64648,-7.70322,1.5,3,-6.34564,-15.35352,-7.70322
12.91096,-13.11181,-14.31807,1.5,16,12.91096,-13.11181,15.68193
6.47181,-5.01885,2.76862,1.5,9,6.47181,-5.01885,2.76862
11.86336,-1.94868,-0.13013,1.5,14,11.86336,-1.94868,-0.13013
-5.56693,4.98077,-9.34775,1.5,2,-5.56693,4.98077,-9.34775
-6.09411,-7.45671,-0.03855,1.5,3,-6.09411,-7.45671,-0.03855
-4.15267,12.81106,13.67034,1.5,1,-4.15267,12.81106,-16.32966
-8.26138,5.88416,-8.64255,1.5,2,-8.26138,5.88416,-8.64255
-11.72092,-0.3162,-12.63681,1.5,2,-11.72092,-0.3162,-12.63681
10.48228,2.75991,5.36521,1.5,14,10.48228,2.75991,5.36521
-8.05895,5.08284,1.47908,1.5,4,-8.05895,5.08284,1.47908
-4.43259,-12.39083,10.88098,1.5,5,-4.43259,-12.39083,10.88098
7.87332,-11.85005,-1.47253,1.5,16,7.87332,-11.85005,-1.47253
-2.71021,0.11066,-11.3705,1.5,6,-2.71021,0.11066,-11.3705
5.05349,-7.87631,14.08185,1.5,13,5.05349,-7.87631,-15.91815
12.49406,8.52766,-3.48802,1.5,14,12.49406,8.52766,-3.48802
4.25901,4.78681,-1.93564,1.5,12,4.25901,4.78681,-1.93564
-12.07505,10.20617,-5.28258,1.5,16,17.924950000000003,-19.79383,-5.28258
-11.13089,-0.73541,14.58784,1.5,2,-11.13089,-0.73541,-15.41216
4.60346,-7.45538,-3.56262,1.5,11,4.60346,-7.45538,-3.56262
10.98991,2.19814,0.31758,1.5,14,10.98991,2.19814,0.31758
-5.46534,12.11015,-8.50887,1.5,3,-5.46534,-17.88985,-8.50887
4.3081,1.24402,-10.09234,1.5,6,4.3081,1.24402,-10.09234
-9.46491,12.95735,-0.07857,1.5,16,20.53509,-17.042650000000002,-0.07857
-0.37826,-6.01915,-6.83663,1.5,3,-0.37826,-6.01915,-6.83663
8.72417,0.45626,4.75434,1.5,14,8.72417,0.45626,4.75434
7.46318,-3.37211,13.90139,1.5,13,7.46318,-3.37211,-16.09861
-8.49929,-9.42245,9.87592,1.5,3,-8.49929,-9.42245,-20.12408
9.42193,0.58956,-14.27361,1.5,13,9.42193,0.58956,-14.27361
13.05738,8.76776,-0.60195,1.5,14,13.05738,8.76776,-0.60195
6.40345,11.04055,7.2917,1.5,-1,6.40345,11.04055,7.2917
14.80885,10.4648,11.18159,1.5,1,-15.19115,10.4648,-18.81841
-14.53967,0.39611,-13.20526,1.5,13,15.46033,0.39611,-13.20526
1.40215,-8.81268,1.46021,1.5,9,1.40215,-8.81268,1.46021
-12.18114,6.33284,-1.75139,1.5,0,-12.18114,6.33284,-1.75139
1.76469,-13.79486,7.913,1.5,9,1.76469,-13.79486,7.913
6.42168,8.39479,0.47657,1.5,12,6.42168,8.39479,0.47657
14.20442,-6.05722,0.07854,1.5,15,14.20442,-6.05722,0.07854
7.95576,-8.74238,-11.52087,1.5,13,7.95576,-8.74238,-11.52087
-10.57904,-9.47545,-13.40998,1.5,3,-10.57904,-9.47545,-13.40998
-2.51055,-0.887,5.78448,1.5,-1,-2.51055,-0.887,5.78448
14.44944,-3.22375,-10.79618,1.5,13,14.44944,-3.22375,-10.79618
1.26478,-1.06811,7.42798,1.5,10,1.26478,-1.06811,7.42798
11.52118,-0.89692,-12.98446,1.5,13,11.52118,-0.89692,-12.98446
14.93965,-3.47982,6.61396,1.5,14,14.93965,-3.47982,6.61396
10.50807,-4.78265,-9.07258,1.5,13,10.50807,-4.78265,-9.07258
1.23008,-5.76899,-2.85768,1.5,-1,1.23008,-5.76899,-2.85768
11.92498,0.36339,-1.55019,1.5,14,11.92498,0.36339,-1.55019
-11.53393,2.54866,12.9327,1.5,2,-11.53393,2.54866,-17.0673
-6.945,-12.27243,-2.31532,1.5,3,-6.945,-12.27243,-2.31532
-1.21045,-0.54035,-14.66863,1.5,6,-1.21045,-0.54035,-14.66863
-3.51769,-4.96059,-6.39842,1.5,3,-3.51769,-4.96059,-6.39842
8.63008,13.40129,-0.79247,1.5,16,8.63008,-16.59871,-0.79247
0.45019,-3.33518,5.79251,1.5,10,0.45019,-3.33518,5.79251
6.02713,-5.92901,-5.3983,1.5,11,6.02713,-5.92901,-5.3983
-14.42324,4.86663,-0.6877,1.5,0,-14.42324,4.86663,-0.6877
-9.66255,11.08702,-13.40428,1.5,1,-9.66255,11.08702,-13.40428
-6.67815,-7.33383,10.42357,1.5,7,-6.67815,-7.33383,10.42357
-5.46864,0.17537,0.11207,1.5,7,-5.46864,0.17537,0.11207
-12.23152,5.36906,-9.0031,1.5,2,-12.23152,5.36906,-9.0031
-0.44696,-3.93826,8.39941,1.5,10,-0.44696,-3.93826,8.39941
10.68115,-12.03176,-2.16382,1.5,15,10.68115,-12.03176,-2.16382
-5.5301,2.48628,-10.42103,1.5,2,-5.5301,2.48628,-10.42103
3.64346,10.4736,-5.40399,1.5,11,3.64346,-19.526400000000002,-5.40399
-1.50209,4.40484,-0.74639,1.5,8,-1.50209,4.40484,-0.74639
12.26789,2.41146,12.96435,1.5,13,12.26789,2.41146,-17.03565
8.01343,8.80426,11.87401,1.5,-1,8.01343,8.80426,11.87401
-6.32971,14.72756,-11.6783,1.5,1,-6.32971,14.72756,-11.6783
11.81263,-7.96708,-10.09026,1.5,13,11.81263,-7.96708,-10.09026
-5.2692,2.47622,14.63839,1.5,8,-5.2692,2.47622,14.63839
-12.48381,14.09935,-11.59773,1.5,1,-12.48381,14.09935,-11.59773
-8.90346,-10.24462,-2.6329,1.5,3,-8.90346,-10.24462,-2.6329
1.06618,9.3966,-5.34374,1.5,11,1.06618,-20.6034,-5.34374
-1.60438,12.72986,3.76736,1.5,9,-1.60438,-17.270139999999998,3.76736
-3.99878,6.7507,12.25965,1.5,8,-3.99878,6.7507,12.25965
8.4184,5.28059,-13.66307,1.5,13,8.4184,5.28059,-13.66307
-14.91595,14.70713,-12.35156,1.5,1,-14.91595,14.70713,-12.35156
9.8698,8.49816,9.83019,1.5,-1,9.8698,8.49816,9.83019
3.39984,0.58572,6.25039,1.5,10,3.39984,0.58572,6.25039
-13.27644,14.16179,1.75867,1.5,16,16.72356,-15.83821,1.75867
-14.13268,4.60332,-6.21722,1.5,0,-14.13268,4.60332,-6.21722
-12.34874,8.61333,7.54079,1.5,-1,-12.34874,8.61333,7.54079
2.86189,-9.71484,5.80506,1.5,9,2.86189,-9.71484,5.80506
5.1551,12.59073,-1.00649,1.5,12,5.1551,12.59073,-1.00649
4.03178,10.37094,9.59183,1.5,10,4.03178,10.37094,9.59183
4.41923,11.67469,12.08276,1.5,10,4.41923,11.67469,12.08276
-4.2837,-0.47547,7.75339,1.5,-1,-4.2837,-0.47547,7.75339
9.2754,-14.62394,11.5883,1.5,16,9.2754,-14.62394,11.5883
1.69327,2.45278,-5.00936,1.5,6,1.69327,2.45278,-5.00936
10.97166,8.2024,3.40093,1.5,14,10.97166,8.2024,3.40093
9.27152,-7.73757,5.1749,1.5,9,9.27152,-7.73757,5.1749
13.08345,8.23159,-9.89437,1.5,1,-16.91655,8.23159,-9.89437
-7.94367,-13.60774,-6.60208,1.5,3,-7.94367,-13.60774,-6.60208
0.97302,-14.94271,10.2531,1.5,9,0.97302,-14.94271,10.2531
-2.38845,-3.77922,6.07278,1.5,7,-2.38845,-3.77922,6.07278
7.78455,-3.92041,-13.37342,1.5,13,7.78455,-3.92041,-13.37342
-0.40819,-7.97752,-2.94659,1.5,-1,-0.40819,-7.97752,-2.94659
11.05447,-13.10082,13.51054,1.5,16,11.05447,-13.10082,13.51054
5.70933,-14.63105,-7.82916,1.5,12,5.70933,15.36895,-7.82916
14.20783,-11.54462,-6.4992,1.5,12,14.20783,-11.54462,-6.4992
-7.78503,9.4395,-12.02427,1.5,2,-7.78503,9.4395,-12.02427
-3.92831,2.10262,-6.92937,1.5,6,-3.92831,2.10262,-6.92937
-8.89979,-1.73588,-0.30642,1.5,7,-8.89979,-1.73588,-0.30642
8.96731,-14.91753,5.12523,1.5,16,8.96731,-14.91753,5.12523
-12.48197,13.39472,5.69737,1.5,16,17.51803,-16.60528,5.69737
4.30325,4.27044,9.51635,1.5,10,4.30325,4.27044,9.51635
10.65049,7.29958,12.22407,1.5,-1,10.65049,7.29958,12.22407
2.9248,-2.21869,-7.85597,1.5,6,2.9248,-2.21869,-7.85597
-1.27159,7.45591,-9.49698,1.5,6,-1.27159,7.45591,-9.49698
6.41129,-7.17586,-9.28129,1.5,13,6.41129,-7.17586,-9.28129
-13.71266,2.47207,14.79249,1.5,13,16.28734,2.47207,-15.20751
9.98796,8.71296,-8.50464,1.5,12,9.98796,8.71296,-8.50464
-10.93437,-13.21054,3.42475,1.5,16,19.06563,-13.21054,3.42475
3.31116,7.65398,9.70805,1.5,10,3.31116,7.65398,9.70805
-5.65323,9.31496,-4.37475,1.5,3,-5.65323,-20.68504,-4.37475
-8.36098,-14.61928,-2.56372,1.5,3,-8.36098,-14.61928,-2.56372
-3.66837,-10.14408,-8.01579,1.5,-1,-3.66837,-10.14408,-8.01579
4.73854,5.58982,-13.9381,1.5,10,4.73854,5.58982,16.0619
-4.20613,-13.80677,-6.80202,1.5,3,-4.20613,-13.80677,-6.80202
-12.42654,10.88597,-14.12483,1.5,1,-12.42654,10.88597,-14.12483
1.74393,-11.01394,7.9844,1.5,9,1.74393,-11.01394,7.9844
-5.66454,14.0744,9.38158,1.5,5,-5.66454,-15.9256,9.38158
8.99243,-14.02472,0.51421,1.5,16,8.99243,-14.02472,0.51421
10.7159,7.71139,0.72857,1.5,14,10.7159,7.71139,0.72857
3.80151,3.25715,7.08313,1.5,10,3.80151,3.25715,7.08313
-13.85655,-13.15719,6.416,1.5,16,16.14345,-13.15719,6.416
1.24307,1.22046,-9.8521,1.5,6,1.24307,1.22046,-9.8521
-3.72654,-9.79173,9.995,1.5,5,-3.72654,-9.79173,9.995
2.0553,-0.20012,-6.07455,1.5,6,2.0553,-0.20012,-6.07455
0.02979,11.51725,-14.22035,1.5,10,0.02979,11.51725,15.77965
3.04297,7.83766,-6.4634,1.5,11,3.04297,-22.16234,-6.4634
-12.89136,-8.15447,0.13055,1.5,15,17.10864,-8.15447,0.13055
0.5103,-5.97691,10.1464,1.5,10,0.5103,-5.97691,10.1464
7.79898,-0.68787,13.69148,1.5,13,7.79898,-0.68787,-16.30852
7.60009,13.98551,7.2628,1.5,16,7.60009,-16.014490000000002,7.2628
-4.22679,-5.8742,10.78821,1.5,7,-4.22679,-5.8742,10.78821
-11.2548,6.4532,-6.57589,1.5,2,-11.2548,6.4532,-6.57589
-3.69384,-1.43189,-13.60419,1.5,6,-3.69384,-1.43189,-13.60419
0.28149,-5.05244,-10.21118,1.5,-1,0.28149,-5.05244,-10.21118
6.45129,4.83763,-6.06875,1.5,12,6.45129,4.83763,-6.06875
10.88461,-4.06486,6.31997,1.5,13,10.88461,-4.06486,-23.680030000000002
11.45372,-6.1633,11.22046,1.5,16,11.45372,-6.1633,11.22046
-8.56447,13.97589,14.41854,1.5,1,-8.56447,13.97589,-15.58146
-4.00672,-1.89595,-1.69085,1.5,7,-4.00672,-1.89595,-1.69085
9.18161,0.49114,-1.07843,1.5,14,9.18161,0.49114,-1.07843
6.1473,-5.03237,-0.0082,1.5,9,6.1473,-5.03237,-0.0082
-2.04586,-7.83155,6.13781,1.5,5,-2.04586,-7.83155,6.13781
-14.89833,-8.29805,-12.75633,1.5,13,15.10167,-8.29805,-12.75633
-4.89176,14.90171,11.89157,1.5,5,-4.89176,-15.09829,11.89157
-7.98192,-11.67245,-4.88051,1.5,3,-7.98192,-11.67245,-4.88051
-10.13183,13.06552,6.88968,1.5,16,19.86817,-16.93448,6.88968
-9.78424,5.96786,3.33427,1.5,4,-9.78424,5.96786,3.33427
-10.34813,6.67074,0.7151,1.5,4,-10.34813,6.67074,0.7151
-12.89418,-10.92181,-0.05553,1.5,15,17.10582,-10.92181,-0.05553
-10.04205,-3.0877,-4.37119,1.5,3,-10.04205,-3.0877,-4.37119
-3.42607,10.76414,11.9991,1.5,8,-3.42607,10.76414,11.9991
1.16009,4.30477,1.71387,1.5,8,1.16009,4.30477,1.71387
4.06437,-13.3118,-11.81902,1.5,13,4.06437,-13.3118,-11.81902
3.53543,-10.23121,14.07203,1.5,13,3.53543,-10.23121,-15.92797
-4.89971,3.31237,7.26186,1.5,-1,-4.89971,3.31237,7.26186
-10.61526,-5.92688,-8.57449,1.5,3,-10.61526,-5.92688,-8.57449
-14.35332,2.15962,-0.93154,1.5,0,-14.35332,2.15962,-0.93154
12.66448,-3.84177,8.27739,1.5,13,12.66448,-3.84177,-21.72261
-10.59679,-2.23689,6.33079,1.5,14,19.40321,-2.23689,6.33079
-1.52827,-8.53753,11.5404,1.5,5,-1.52827,-8.53753,11.5404
-6.09381,-14.24288,-4.35439,1.5,3,-6.09381,-14.24288,-4.35439
-11.7968,-11.33089,-9.78507,1.5,3,-11.7968,-11.33089,-9.78507
-11.26748,4.29052,-0.05701,1.5,0,-11.26748,4.29052,-0.05701
8.23211,-6.00796,-7.33046,1.5,13,8.23211,-6.00796,-7.33046
3.77968,-12.86473,-3.42976,1.5,11,3.77968,-12.86473,-3.42976
-9.09364,0.02891,-13.66392,1.5,2,-9.09364,0.02891,-13.66392
-11.99197,-13.36182,14.91483,1.5,1,-11.99197,16.63818,-15.08517
7.78978,1.79526,-3.60048,1.5,12,7.78978,1.79526,-3.60048
4.59851,-11.95034,5.32074,1.5,9,4.59851,-11.95034,5.32074
7.06866,10.52349,-0.98614,1.5,12,7.06866,10.52349,-0.98614
1.27554,14.03358,-14.72295,1.5,13,1.27554,-15.96642,-14.72295
0.6375,12.52366,5.48158,1.5,9,0.6375,-17.47634,5.48158
11.2378,-3.27261,-4.17504,1.5,13,11.2378,-3.27261,-4.17504
3.74589,-4.80429,-8.76848,1.5,6,3.74589,-4.80429,-8.76848
5.47417,2.85391,11.71282,1.5,10,5.47417,2.85391,11.71282
4.91079,8.18038,-1.84402,1.5,12,4.91079,8.18038,-1.84402
-7.98061,3.68604,-10.40787,1.5,2,-7.98061,3.68604,-10.40787
-5.01098,6.34537,9.51724,1.5,8,-5.01098,6.34537,9.51724
9.60039,2.24938,2.70519,1.5,14,9.60039,2.24938,2.70519
8.30397,-0.22427,-7.07178,1.5,12,8.30397,-0.22427,-7.07178
-2.64114,-6.08455,1.17206,1.5,7,-2.64114,-6.08455,1.17206
-8.08401,3.95045,4.12477,1.5,4,-8.08401,3.95045,4.12477
8.86626,4.92255,-8.80949,1.5,12,8.86626,4.92255,-8.80949
-3.76877,-10.85911,-14.78349,1.5,5,-3.76877,-10.85911,15.21651
-0.38911,-2.32739,-2.95553,1.5,3,-0.38911,-2.32739,-2.95553
8.75889,-3.20097,10.30921,1.5,14,8.75889,-3.20097,10.30921
12.42235,-0.1751,8.77437,1.5,13,12.42235,-0.1751,-21.225630000000002
3.09309,-11.41027,-8.16576,1.5,13,3.09309,-11.41027,-8.16576
9.78692,-10.45709,0.4715,1.5,15,9.78692,-10.45709,0.4715
-12.24966,-2.9293,-0.88536,1.5,0,-12.24966,-2.9293,-0.88536
12.28383,-2.70893,-9.39651,1.5,13,12.28383,-2.70893,-9.39651
13.38377,-3.60535,-5.92693,1.5,12,13.38377,-3.60535,-5.92693
4.17236,-1.72467,-1.32458,1.5,-1,4.17236,-1.72467,-1.32458
3.71236,-5.65679,7.27793,1.5,9,3.71236,-5.65679,7.27793
-0.59518,6.19725,-13.22464,1.5,6,-0.59518,6.19725,-13.22464
11.28224,-13.23398,5.52784,1.5,16,11.28224,-13.23398,5.52784
5.76664,12.80423,-8.69101,1.5,12,5.76664,12.80423,-8.69101
10.07642,-0.31023,1.34153,1.5,14,10.07642,-0.31023,1.34153
-4.21637,0.52034,-9.08556,1.5,6,-4.21637,0.52034,-9.08556
5.47245,-2.7805,-3.61111,1.5,-1,5.47245,-2.7805,-3.61111
11.40479,-11.36574,-10.6382,1.5,13,11.40479,-11.36574,-10.6382
2.32247,5.47074,10.96602,1.5,10,2.32247,5.47074,10.96602
4.91712,13.34658,-3.69657,1.5,11,4.91712,-16.65342,-3.69657
12.32067,-8.06341,-0.20931,1.5,15,12.32067,-8.06341,-0.20931
-6.94196,6.82985,-0.27097,1.5,4,-6.94196,6.82985,-0.27097
-8.24981,5.186,-2.21733,1.5,4,-8.24981,5.186,-2.21733
-8.14745,7.92059,1.94431,1.5,4,-8.14745,7.92059,1.94431
-5.67405,-1.26617,-3.86416,1.5,7,-5.67405,-1.26617,-3.86416
4.90086,-3.03645,6.89697,1.5,14,4.90086,-3.03645,6.89697
-9.44465,3.7205,-4.78125,1.5,4,-9.44465,3.7205,-4.78125
12.81647,-13.23601,11.18556,1.5,16,12.81647,-13.23601,11.18556
-4.59388,-13.30709,-13.58878,1.5,5,-4.59388,-13.30709,16.41122
13.64298,8.4525,2.27597,1.5,14,13.64298,8.4525,2.27597
-10.22163,5.29034,-10.88854,1.5,2,-10.22163,5.29034,-10.88854
-6.71857,5.06855,12.76295,1.5,8,-6.71857,5.06855,12.76295
-9.92151,7.63365,-13.02977,1.5,2,-9.92151,7.63365,-13.02977
-11.53565,0.13497,7.43712,1.5,14,18.46435,0.13497,7.43712
-5.46412,12.99012,-5.8508,1.5,3,-5.46412,-17.009880000000003,-5.8508
6.58292,7.20121,-9.04027,1.5,12,6.58292,7.20121,-9.04027
-7.02195,3.33069,-7.88454,1.5,2,-7.02195,3.33069,-7.88454
-3.47245,-10.42636,12.59899,1.5,5,-3.47245,-10.42636,12.59899
-2.45871,1.68587,7.37109,1.5,-1,-2.45871,1.68587,7.37109
13.78567,-9.01191,-5.44855,1.5,12,13.78567,-9.01191,-5.44855
8.99684,-6.21848,-12.31227,1.5,13,8.99684,-6.21848,-12.31227
8.72187,4.87422,6.27446,1.5,14,8.72187,4.87422,6.27446
-13.36241,5.1173,1.68938,1.5,0,-13.36241,5.1173,1.68938
-9.07352,1.48902,-3.15268,1.5,4,-9.07352,1.48902,-3.15268
-5.42991,3.96878,10.81201,1.5,8,-5.42991,3.96878,10.81201
-5.32315,13.64287,-13.96226,1.5,1,-5.32315,13.64287,-13.96226
0.02389,14.08488,7.80097,1.5,9,0.02389,-15.91512,7.80097
-7.25276,-0.15014,-1.92709,1.5,7,-7.25276,-0.15014,-1.92709
-12.31345,3.41572,-2.27129,1.5,0,-12.31345,3.41572,-2.27129
-4.72495,-13.51267,8.3059,1.5,5,-4.72495,-13.51267,8.3059
-2.81358,4.84201,4.46364,1.5,8,-2.81358,4.84201,4.46364
9.07177,11.06501,-4.82276,1.5,11,9.07177,-18.93499,-4.82276
5.52445,3.41279,-4.028,1.5,12,5.52445,3.41279,-4.028
-3.20461,-4.77616,8.514,1.5,7,-3.20461,-4.77616,8.514
-11.16183,-1.89879,-6.65365,1.5,3,-11.16183,-1.89879,-6.65365
-5.02575,-10.0182,-1.13726,1.5,3,-5.02575,-10.0182,-1.13726
-9.81008,-7.61343,14.79744,1.5,3,-9.81008,-7.61343,-15.20256
-8.40152,-7.56004,-12.70234,1.5,3,-8.40152,-7.56004,-12.70234
12.37944,-10.70411,-0.57515,1.5,15,12.37944,-10.70411,-0.57515
-12.73891,-9.59273,6.98721,1.5,3,-12.73891,-9.59273,-23.01279
3.08171,-6.66057,1.34546,1.5,9,3.08171,-6.66057,1.34546
3.23747,-10.94639,-13.16025,1.5,13,3.23747,-10.94639,-13.16025
5.66683,-13.31598,8.74629,1.5,16,5.66683,-13.31598,8.74629
0.09344,3.3558,-12.7221,1.5,6,0.09344,3.3558,-12.7221
13.57082,-12.01539,6.6721,1.5,16,13.57082,-12.01539,6.6721
-9.83775,12.14725,4.31608,1.5,16,20.16225,-17.85275,4.31608
4.481,-4.78311,4.6689,1.5,9,4.481,-4.78311,4.6689
-9.47608,1.36106,8.89526,1.5,14,20.52392,1.36106,8.89526
-10.14342,3.9855,-7.63744,1.5,2,-10.14342,3.9855,-7.63744
7.78616,13.1543,12.77262,1.5,16,7.78616,-16.8457,12.77262
0.68164,8.79868,9.44365,1.5,10,0.68164,8.79868,9.44365
9.76301,1.20585,12.96098,1.5,13,9.76301,1.20585,-17.03902
8.58675,2.66303,-12.54538,1.5,13,8.58675,2.66303,-12.54538
2.84983,-2.19759,11.70614,1.5,-1,2.84983,-2.19759,11.70614
10.98189,5.14923,-10.8701,1.5,12,10.98189,5.14923,-10.8701
7.66903,8.07953,-2.17096,1.5,12,7.66903,8.07953,-2.17096
-5.52629,-6.25774,8.19458,1.5,7,-5.52629,-6.25774,8.19458
-13.31714,-12.95698,-12.66229,1.5,1,-13.31714,17.04302,-12.66229
-14.48008,-8.79943,12.75664,1.5,16,15.51992,-8.79943,12.75664
14.5907,-14.31707,1.64795,1.5,16,14.5907,-14.31707,1.64795
14.33327,-6.68064,10.36876,1.5,16,14.33327,-6.68064,10.36876
12.19655,0.09362,11.53972,1.5,13,12.19655,0.09362,-18.460279999999997
-10.25883,3.42515,2.22347,1.5,4,-10.25883,3.42515,2.22347
-6.3396,-5.59731,-1.92249,1.5,3,-6.3396,-5.59731,-1.92249
2.82301,13.09187,-5.33192,1.5,11,2.82301,-16.90813,-5.33192
1.15665,-2.96235,3.06922,1.5,10,1.15665,-2.96235,3.06922
-3.83078,1.04212,12.6663,1.5,8,-3.83078,1.04212,12.6663
12.54991,-9.37579,-12.37483,1.5,13,12.54991,-9.37579,-12.37483
-12.45454,4.51737,8.31466,1.5,-1,-12.45454,4.51737,8.31466
-4.30744,-12.97549,13.63499,1.5,5,-4.30744,-12.97549,13.63499
7.41988,-9.32729,6.75298,1.5,14,7.41988,-9.32729,6.75298
-0.36263,4.4315,14.71825,1.5,6,-0.36263,4.4315,-15.28175
-2.25428,-1.57535,3.12259,1.5,7,-2.25428,-1.57535,3.12259
-3.99197,-9.4343,7.20063,1.5,5,-3.99197,-9.4343,7.20063
-9.4622,7.88884,-10.27442,1.5,2,-9.4622,7.88884,-10.27442
13.78735,-9.45175,10.88936,1.5,16,13.78735,-9.45175,10.88936
9.9582,-13.33208,2.98468,1.5,16,9.9582,-13.33208,2.98468
-0.86115,-3.19621,-5.47922,1.5,3,-0.86115,-3.19621,-5.47922
-11.09009,14.22335,13.75761,1.5,1,-11.09009,14.22335,-16.24239
11.91758,-2.48253,10.3643,1.5,13,11.91758,-2.48253,-19.6357
-5.89441,-11.11347,8.61321,1.5,5,-5.89441,-11.11347,8.61321
9.34165,2.30144,-8.06949,1.5,12,9.34165,2.30144,-8.06949
8.28556,4.49069,-3.95727,1.5,12,8.28556,4.49069,-3.95727
6.94174,-6.20667,5.42154,1.5,9,6.94174,-6.20667,5.42154
-2.74611,-6.7961,-8.46152,1.5,3,-2.74611,-6.7961,-8.46152
-3.80963,-4.15356,-9.10092,1.5,3,-3.80963,-4.15356,-9.10092
11.30057,0.03126,3.73333,1.5,14,11.30057,0.03126,3.73333
-7.53444,1.21323,-11.76249,1.5,2,-7.53444,1.21323,-11.76249
-13.69297,2.33234,-4.40851,1.5,0,-13.69297,2.33234,-4.40851
3.45511,8.90357,6.99808,1.5,10,3.45511,8.90357,6.99808
5.88059,4.38854,5.73155,1.5,10,5.88059,4.38854,5.73155
-7.28723,-9.11137,-4.64715,1.5,3,-7.28723,-9.11137,-4.64715
-14.00081,10.50473,13.58466,1.5,1,-14.00081,10.50473,-16.41534
9.31886,-11.39508,4.81155,1.5,16,9.31886,-11.39508,4.81155
9.62141,-0.91216,9.08444,1.5,14,9.62141,-0.91216,9.08444
8.92955,10.20256,-12.12886,1.5,16,8.92955,-19.79744,17.87114
-11.47541,-9.95215,-6.57222,1.5,3,-11.47541,-9.95215,-6.57222
13.34844,2.29339,9.91903,1.5,13,13.34844,2.29339,-20.08097
-9.83101,-12.3777,5.97998,1.5,16,20.16899,-12.3777,5.97998
-8.03431,8.99062,-14.70582,1.5,2,-8.03431,8.99062,-14.70582
8.90707,-10.64344,14.81811,1.5,-1,8.90707,-10.64344,14.81811
7.94235,7.65577,14.80782,1.5,13,7.94235,7.65577,-15.19218
12.48484,-11.24053,9.22369,1.5,16,12.48484,-11.24053,9.22369
-6.73619,14.22769,3.0137,1.5,16,23.26381,-15.77231,3.0137
-4.06707,8.84896,10.27629,1.5,8,-4.06707,8.84896,10.27629
9.23136,-7.16842,-9.76761,1.5,13,9.23136,-7.16842,-9.76761
14.62544,-13.6081,13.52196,1.5,16,14.62544,-13.6081,13.52196
-0.4628,14.99853,5.09269,1.5,9,-0.4628,-15.00147,5.09269
-6.00418,-8.79452,-12.26828,1.5,3,-6.00418,-8.79452,-12.26828
6.89051,13.05497,-12.73934,1.5,16,6.89051,-16.94503,17.26066
2.63693,-1.16231,-10.35892,1.5,6,2.63693,-1.16231,-10.35892
1.66873,-13.53449,-5.04736,1.5,11,1.66873,-13.53449,-5.04736
-7.60617,-9.71481,-0.05826,1.5,3,-7.60617,-9.71481,-0.05826
11.69691,3.89719,-8.58612,1.5,12,11.69691,3.89719,-8.58612
-2.93536,-0.77372,0.6326,1.5,7,-2.93536,-0.77372,0.6326
-12.98209,13.4561,-6.93421,1.5,-1,-12.98209,13.4561,-6.93421
-1.39624,-3.33418,-8.14343,1.5,3,-1.39624,-3.33418,-8.14343
-1.3283,-2.0091,-12.21666,1.5,6,-1.3283,-2.0091,-12.21666
-13.39555,-1.32344,5.89478,1.5,14,16.60445,-1.32344,5.89478
0.09688,11.75438,-4.29444,1.5,11,0.09688,-18.245620000000002,-4.29444
1.84448,-3.2547,-1.60434,1.5,-1,1.84448,-3.2547,-1.60434
13.29793,-10.0824,-9.08226,1.5,13,13.29793,-10.0824,-9.08226
2.94515,6.73024,5.03652,1.5,10,2.94515,6.73024,5.03652
4.8271,7.30385,2.34988,1.5,10,4.8271,7.30385,2.34988
7.82946,-10.92639,-9.83599,1.5,13,7.82946,-10.92639,-9.83599
-4.64632,-3.08927,-11.54397,1.5,6,-4.64632,-3.08927,-11.54397
-9.46349,2.91277,-12.53043,1.5,2,-9.46349,2.91277,-12.53043
-13.78495,-9.09229,3.00938,1.5,16,16.215049999999998,-9.09229,3.00938
-5.68686,-0.9561,5.35072,1.5,-1,-5.68686,-0.9561,5.35072
-7.03592,-11.5617,-8.47258,1.5,3,-7.03592,-11.5617,-8.47258
-0.02122,12.85761,12.9772,1.5,10,-0.02122,12.85761,12.9772
-12.66348,-3.27748,7.9771,1.5,14,17.33652,-3.27748,7.9771
-5.26493,12.21617,7.37126,1.5,4,-5.26493,12.21617,7.37126
9.84537,-3.59108,-11.68302,1.5,13,9.84537,-3.59108,-11.68302
-1.06542,8.57803,-12.10011,1.5,6,-1.06542,8.57803,-12.10011
-0.78569,5.66829,-5.33905,1.5,6,-0.78569,5.66829,-5.33905
-7.14649,6.61612,4.27927,1.5,4,-7.14649,6.61612,4.27927
13.96762,-2.09458,12.25293,1.5,13,13.96762,-2.09458,-17.74707
14.88816,2.20016,12.28775,1.5,13,14.88816,2.20016,-17.712249999999997
10.46735,-9.22242,-2.01268,1.5,15,10.46735,-9.22242,-2.01268
-7.93416,-8.71591,3.13642,1.5,3,-7.93416,-8.71591,-26.86358
-9.97556,-9.87341,7.45624,1.5,3,-9.97556,-9.87341,-22.54376
-5.44626,8.2199,2.44285,1.5,4,-5.44626,8.2199,2.44285
12.83889,12.49813,3.61981,1.5,-1,12.83889,12.49813,3.61981
6.474,5.99892,-0.72172,1.5,12,6.474,5.99892,-0.72172
0.23208,-14.75447,-3.1383,1.5,11,0.23208,-14.75447,-3.1383
0.57215,-13.22551,12.50117,1.5,9,0.57215,-13.22551,12.50117
-4.0811,5.96898,6.81923,1.5,8,-4.0811,5.96898,6.81923
-11.89665,1.67388,0.43103,1.5,0,-11.89665,1.67388,0.43103
8.14571,-7.93545,9.0392,1.5,14,8.14571,-7.93545,9.0392
-14.08442,-14.63381,11.12395,1.5,16,15.91558,-14.63381,11.12395
-11.56413,-7.29816,-6.36307,1.5,3,-11.56413,-7.29816,-6.36307
14.09086,-6.23199,-5.06558,1.5,12,14.09086,-6.23199,-5.06558
1.29927,7.31894,-1.39926,1.5,6,1.29927,7.31894,-1.39926
-14.37113,14.71699,-0.90131,1.5,16,15.62887,-15.28301,-0.90131
-0.79134,-13.09454,-1.28578,1.5,11,-0.79134,-13.09454,-1.28578
6.83209,10.06828,-8.47535,1.5,12,6.83209,10.06828,-8.47535
-2.72256,-4.23176,3.30185,1.5,7,-2.72256,-4.23176,3.30185
14.6065,9.37691,-14.29385,1.5,1,-15.3935,9.37691,-14.29385
-1.83958,8.6554,-0.73603,1.5,-1,-1.83958,8.6554,-0.73603
2.16393,-1.32135,4.89926,1.5,10,2.16393,-1.32135,4.89926
1.17109,2.45016,13.5292,1.5,6,1.17109,2.45016,-16.4708
1.22114,4.87423,-3.65115,1.5,6,1.22114,4.87423,-3.65115
-12.77911,-11.33211,4.66162,1.5,16,17.22089,-11.33211,4.66162
12.31114,-13.7544,8.3517,1.5,16,12.31114,-13.7544,8.3517
1.01139,-14.04752,2.79517,1.5,9,1.01139,-14.04752,2.79517
14.58678,4.81568,14.60221,1.5,13,14.58678,4.81568,-15.39779
2.92409,-9.48843,-2.81817,1.5,11,2.92409,-9.48843,-2.81817
-3.46203,-6.58559,14.93634,1.5,7,-3.46203,-6.58559,14.93634
10.17057,-1.59467,12.57522,1.5,13,10.17057,-1.59467,-17.42478
4.56801,8.31222,-13.91013,1.5,10,4.56801,8.31222,16.089869999999998
-13.72284,-1.38624,13.60959,1.5,13,16.277160000000002,-1.38624,-16.39041
-5.54421,-7.96848,-2.88246,1.5,3,-5.54421,-7.96848,-2.88246
13.7194,-13.04234,4.07232,1.5,16,13.7194,-13.04234,4.07232
5.7793,0.29255,-2.33174,1.5,12,5.7793,0.29255,-2.33174
12.04721,-2.36357,2.561,1.5,14,12.04721,-2.36357,2.561
